  -76.668927999999994        18.557517000000001        2954.7900000000000     
  -76.562245000000004        18.491226000000001        2875.1840000000002     
  -76.370694000000000        18.512854000000001        2839.1230000000000     
  -76.141052000000002        18.569096999999999        2676.6509999999998     
  -76.062473999999995        18.760780000000000        2746.0650000000001     
  -75.965140000000005        18.950457000000000        2819.0210000000002     
  -76.098732999999996        19.128326999999999        3608.8029999999999     
  -75.962861000000004        19.302911000000002        3212.5079999999998     
  -76.055361000000005        19.480933000000000        4762.2200000000003     
  -76.116249999999994        19.644262000000001        5474.1819999999998     
  -76.288752000000002        19.688078000000001        6021.6769999999997     
  -76.418485000000004        19.745555000000000        5880.8239999999996     
  -76.605461000000005        19.789273999999999        4884.5799999999999     
  -76.508527999999998        19.805267000000001        4969.7449999999999     
  -76.770533000000000        19.798005000000000        4423.7680000000000     
  -76.685998999999995        19.824014999999999        3974.3220000000001     
  -76.871848000000000        19.828299000000001        3128.7660000000001     
  -76.954025999999999        19.886030999999999        1447.9659999999999     
  -77.482878999999997        20.146238000000000        10.000000000000000     
  -77.543553000000003        20.198526999999999        10.000000000000000     
  -77.599050000000005        20.243870999999999        10.000000000000000     
  -77.657971000000003        20.289700000000000        10.000000000000000     
  -77.719185999999993        20.341020000000000        10.000000000000000     
  -77.688104999999993        20.410018000000001        10.000000000000000     
  -77.650879000000003        20.482915999999999        10.000000000000000     
  -77.718143999999995        20.531237000000001        10.000000000000000     
  -77.773929999999993        20.577362999999998        10.000000000000000     
  -77.824594000000005        20.624730000000000        10.000000000000000     
  -77.793655999999999        20.692297000000000        7.5400000000000000     
  -77.836630000000000        20.719094999999999        4.9669999999999996     
  -78.550117000000000        21.311325000000000        10.000000000000000     
  -78.636971000000003        21.350950999999998        10.000000000000000     
  -78.715286000000006        21.394041000000001        10.000000000000000     
  -78.790233000000001        21.437892000000002        10.000000000000000     
  -78.863065000000006        21.484062000000002        10.000000000000000     
  -78.933237000000005        21.534683999999999        10.000000000000000     
  -79.005937000000003        21.591028000000001        9.0770000000000000     
  -78.344819000000001        22.200503999999999        8.6229999999999993     
  -78.250861000000000        22.260916000000002        9.2140000000000004     
  -78.169392999999999        22.310872000000000        76.019999999999996     
  -77.911209999999997        22.218150999999999        31.288000000000000     
  -77.763253000000006        22.258980999999999        574.29399999999998     
  -77.636622000000003        22.283345000000001        799.43299999999999     
  -77.561595999999994        22.348163000000000        583.20600000000002     
  -77.437259999999995        22.364270000000001        262.14499999999998     
  -77.386591999999993        22.467179000000002        190.01200000000000     
  -77.442701000000000        22.541591000000000        211.95599999999999     
  -77.332802000000001        22.565919000000001        89.222999999999999     
  -77.340085000000002        22.652640000000002        114.09399999999999     
  -77.250125999999995        22.637436000000001        144.12200000000001     
  -77.167058999999995        22.708397999999999        54.572000000000003     
  -77.050736999999998        22.653231999999999        42.695000000000000     
  -76.937040999999994        22.697073000000000        19.725000000000001     
  -76.841960000000000        22.786277999999999        13.308000000000000     
  -76.686975000000004        22.893519000000001        14.632000000000000     
  -76.720742000000001        23.092524999999998        153.04499999999999     
  -76.816016000000005        23.241391000000000        287.02499999999998     
  -76.947772999999998        23.305942000000002        453.53300000000002     
  -77.198066999999995        23.432876000000000        504.93000000000001     
  -77.021996999999999        23.450481000000000        502.10000000000002     
  -77.154965000000004        23.531957999999999        915.00300000000004     
  -77.224581999999998        23.630106999999999        590.56100000000004     
  -77.254328000000001        23.737940999999999        925.28499999999997     
  -77.295113000000001        23.831897000000001        744.04100000000005     
  -77.352422000000004        23.938102000000001        599.66099999999994     
  -77.457901000000007        24.025309000000000        758.55999999999995     
  -77.543090000000007        24.011545999999999        681.35299999999995     
  -77.569817999999998        24.180900999999999        122.90300000000001     
  -77.452404999999999        24.243977000000001        675.05300000000000     
  -77.494203999999996        24.370747999999999        521.35299999999995     
  -77.607422000000000        24.448364999999999        581.33399999999995     
  -77.595876000000004        24.558015000000001        606.07600000000002     
  -77.749275999999995        24.607424999999999        683.11400000000003     
  -77.978371999999993        25.102948999999999        719.17399999999998     
  -77.883044999999996        25.171185000000001        1168.5350000000001     
  -77.846647000000004        25.270344999999999        1981.9340000000000     
  -77.882825999999994        25.349198999999999        1127.5590000000000     
  -77.912671000000003        25.427178999999999        547.58100000000002     
  -77.995406000000003        25.449086999999999        527.96699999999998     
  -78.068870000000004        25.476198000000000        256.02499999999998     
  -78.127600999999999        25.498989000000002        203.21799999999999     
  -78.081351999999995        25.541309999999999        146.74500000000000     
  -78.021501999999998        25.579868999999999        379.81599999999997     
  -77.970718000000005        25.650245000000002        402.72000000000003     
  -77.846867000000003        25.676898000000001        302.31700000000001     
  -77.784761000000003        25.764521999999999        382.57600000000002     
  -77.788720999999995        25.901378000000001        923.67300000000000     
  -77.866528000000002        26.075873999999999        1549.6820000000000     
  -77.965445000000003        26.185250000000000        1569.2270000000001     
  -78.079515999999998        26.247522000000000        1045.1790000000001     
  -78.201015999999996        26.344598000000001        1128.3140000000001     
  -78.350550999999996        26.398204000000000        963.10699999999997     
  -78.441687000000002        26.486630000000002        552.07299999999998     
  -78.737883999999994        26.505765000000000        320.35399999999998     
  -78.627915999999999        26.517861000000000        235.26900000000001     
  -78.530574000000001        26.557838000000000        143.76599999999999     
  -78.829642000000007        26.567202000000002        72.087000000000003     
  -79.976645000000005        25.998792999999999        259.36900000000003     
  -79.954474000000005        26.051399000000000        259.72300000000001     
  -79.998761999999999        26.109079000000001        208.31500000000000     
  -79.961217000000005        26.170677000000001        256.32600000000002     
  -79.934177000000005        26.231117000000001        268.42200000000003     
  -79.873243000000002        26.240185000000000        308.36399999999998     
  -79.834254999999999        26.278376999999999        384.00299999999999     
  -79.852378999999999        26.339314999999999        357.69799999999998     
  -79.796411000000006        26.381865000000001        458.08800000000002     
  -79.740468000000007        26.431018000000002        532.10500000000002     
  -79.680116999999996        26.492540999999999        614.45500000000004     
  -79.531175000000005        26.516857999999999        765.92700000000002     
  -79.606902000000005        26.527612000000001        722.88400000000001     
  -79.480367000000001        26.569047999999999        728.82700000000000     
  -79.304734999999994        26.657588000000001        613.12599999999998     
  -79.217669999999998        26.662198000000000        649.84299999999996     
  -79.481202999999994        26.644195000000000        728.94700000000000     
  -79.394116999999994        26.690957000000001        652.23500000000001     
  -78.912980000000005        26.622326999999999        347.38600000000002     
  -79.067659000000006        26.644195000000000        419.92300000000000     
  -78.990998000000005        26.673857999999999        83.582999999999998     
  -79.137017000000000        26.688910000000000        615.69399999999996     
  -80.112424000000004        25.979693000000001        138.72600000000000     
  -80.037684999999996        26.037766000000001        84.611999999999995     
  -84.371870999999999        30.037787999999999        4.7030000000000003     
  -84.356206000000000        30.053387000000001        6.5759999999999996     
  -84.336669000000001        30.063389999999998        8.0050000000000008     
  -84.318387000000001        30.070937000000001        7.3739999999999997     
  -84.274540000000002        30.091595000000002        5.7039999999999997     
  -84.249545999999995        30.099190000000000        4.5439999999999996     
  -85.601034999999996        30.098112000000000        7.3250000000000002     
  -85.584934000000004        30.101393999999999        6.4630000000000001     
  -85.579110999999997        30.116819000000000        5.3150000000000004     
  -85.687094000000002        30.256712000000000        2.0619999999999998     
  -85.692832999999993        30.265108000000001       0.90800000000000003     
  -85.751576999999997        30.274563000000001        1.8710000000000000     
  -85.797814000000002        30.255500999999999        2.2959999999999998     
  -85.810705999999996        30.238368000000001        1.7240000000000000     
  -85.797387999999998        30.275327000000001        2.0710000000000002     
  -85.772343000000006        30.287640000000000        1.8400000000000001     
  -85.720090999999996        30.272787000000001       0.51300000000000001     
  -85.733583999999993        30.278528000000001       0.52300000000000002     
  -85.663528999999997        30.246729999999999        1.1950000000000001     
  -85.673131999999995        30.258935000000001        1.8600000000000001     
  -88.039537999999993        30.667835000000000        3.2480000000000002     
  -88.005617000000001        30.683195999999999        2.2220000000000000     
  -86.764313999999999        30.419350999999999        1.7480000000000000     
  -86.778191000000007        30.403732000000002        1.5429999999999999     
  -86.304203000000001        30.428639000000000        4.7149999999999999     
  -86.301972000000006        30.442689000000001        5.4299999999999997     
  -86.299981000000002        30.465875000000000        3.8719999999999999     
  -86.299198000000004        30.488789000000001        1.6130000000000000     
  -87.136674999999997        30.346377000000000        4.4160000000000004     
  -87.119209999999995        30.367827999999999        4.2690000000000001     
  -87.091100999999995        30.401577000000000        4.6550000000000002     
  -87.111992000000001        30.424037999999999        4.4169999999999998     
  -87.126569000000003        30.457927999999999        3.2559999999999998     
  -87.153431999999995        30.497064000000002        2.4729999999999999     
  -87.411441999999994        30.393674000000001        2.0080000000000000     
  -87.427336999999994        30.400860000000002        2.4060000000000001     
  -87.434403000000003        30.411557999999999        2.6469999999999998     
  -89.769226000000003        29.937747000000002        2.4270000000000000     
  -89.820423000000005        29.959498000000000        2.4670000000000001     
  -88.133987000000005        15.681742000000000        37.566000000000003     
  -88.160691000000000        15.769885000000000        74.807000000000002     
  -88.253716999999995        15.729423000000001        86.632999999999996     
  -88.344420000000000        15.803925000000000        111.55300000000000     
  -88.449636999999996        15.854585999999999        88.852999999999994     
  -88.518572000000006        15.920147000000000        69.796000000000006     
  -88.605648000000002        15.970808999999999        9.1579999999999995     
  -88.704992000000004        16.061306999999999        17.837000000000000     
  -88.768915000000007        16.125772000000001        9.0129999999999999     
  -82.341756000000004        14.018235000000001        25.411000000000001     
  -82.474338000000003        14.085243999999999        17.308000000000000     
  -82.524711999999994        14.173016000000001        15.728999999999999     
  -82.617596000000006        14.085891999999999        21.233000000000001     
  -82.809258999999997        14.099328000000000        20.902999999999999     
  -83.028662999999995        14.100614000000000        17.248000000000001     
  -83.096943999999993        14.242111000000000        6.3319999999999999     
  -83.179212000000007        14.333519000000001        9.6440000000000001     
  -83.205460000000002        14.432693000000000        8.5909999999999993     
  -81.354078999999999        13.166429000000001        1436.0750000000000     
  -81.832166999999998        13.298382000000000        886.78200000000004     
  -82.201407000000003        13.403555000000001        183.55099999999999     
  -82.282995999999997        13.594671999999999        15.029999999999999     
  -82.381981999999994        13.751695000000000        16.606999999999999     
  -82.405276999999998        13.893482000000001        14.055000000000000     
  -80.901492000000005        13.042842000000000        1903.9800000000000     
  -80.389955999999998        12.914600999999999        2332.1160000000000     
  -79.861693000000002        12.921590999999999        3101.1370000000002     
  -79.388193000000001        12.908842000000000        3267.2320000000000     
  -78.926124999999999        12.890309000000000        3361.8260000000000     
  -78.674903000000000        13.201416000000000        3530.9989999999998     
  -78.424040000000005        13.512865000000000        3512.8829999999998     
  -78.177060999999995        13.825495999999999        2827.7719999999999     
  -77.936916999999994        14.142716000000000        2797.8960000000002     
  -77.467776000000001        14.134409000000000        3841.4470000000001     
  -76.988716999999994        14.120037000000000        4043.3080000000000     
  -76.731100999999995        14.450483000000000        4013.9569999999999     
  -76.239725000000007        14.429872000000000        4031.7020000000002     
  -75.975033999999994        14.762211000000001        4001.4130000000000     
  -75.712557000000004        15.095511000000000        3690.8000000000002     
  -75.455806999999993        15.429531000000001        3690.2159999999999     
  -75.208410000000001        15.766484000000000        3111.9119999999998     
  -75.459474999999998        16.098469000000001        2677.9220000000000     
  -75.725436000000002        16.388034000000001        1700.1530000000000     
  -75.632835999999998        16.716284999999999        1651.9749999999999     
  -75.613855999999998        17.042814000000000        1657.2760000000001     
  -75.624156999999997        17.338740000000001        1430.4320000000000     
  -75.944621999999995        17.495968999999999        829.49699999999996     
  -76.228650000000002        17.567070999999999        1418.3450000000000     
  -76.814937999999998        17.658380000000001        1568.3850000000000     
  -76.596294999999998        17.661460000000002        1548.5010000000000     
  -76.394633999999996        17.662258000000001        1401.5440000000001     
  -77.097696999999997        17.595161999999998        387.23300000000000     
  -77.247051999999996        17.615067000000000        179.59000000000000     
  -76.997159999999994        17.663779000000002        953.47100000000000     
  -77.396136999999996        17.583936999999999        315.93799999999999     
  -77.491788000000000        17.654302000000001        147.22800000000001     
  -77.490301000000002        17.766538000000001        84.540999999999997     
  -77.636071000000001        17.779073000000000        86.576999999999998     
  -77.575405000000003        17.847570000000001        1.9920000000000000     
  -76.829400000000007        18.326405999999999        340.71800000000002     
  -76.719904000000000        18.361796999999999        1479.5170000000001     
  -76.607570999999993        18.384444999999999        1913.4440000000000     
  -76.475706000000002        18.386838999999998        2601.0929999999998     
  -76.335040000000006        18.359805999999999        2388.1379999999999     
  -76.213541000000006        18.430821000000002        2459.1289999999999     
  -76.022014999999996        18.399941999999999        902.85900000000004     
  -75.861971999999994        18.600881999999999        1266.9030000000000     
  -75.835530000000006        18.799706000000000        2293.4520000000002     
  -75.703187000000000        18.950299999999999        2804.0100000000002     
  -75.835381999999996        19.128392999999999        3043.8299999999999     
  -75.712894000000006        19.301517000000000        3660.3449999999998     
  -75.825897999999995        19.455525999999999        4616.8310000000001     
  -75.900328999999999        19.625059000000000        4762.0389999999998     
  -76.004834000000002        19.767872000000001        3509.4299999999998     
  -76.170289999999994        19.768564999999999        4446.1639999999998     
  -76.304239999999993        19.810652000000001        4590.6639999999998     
  -76.414736000000005        19.827435999999999        4132.4459999999999     
  -76.589568000000000        19.868769000000000        2829.8789999999999     
  -76.473577000000006        19.883032000000000        2795.0770000000002     
  -76.771237999999997        19.867478999999999        2485.0680000000002     
  -76.685321999999999        19.889776000000001        1944.5670000000000     
  -76.869183000000007        19.925377000000001        1033.7670000000001     
  -77.415958000000003        20.179206000000001        10.000000000000000     
  -77.472228999999999        20.218267999999998        10.000000000000000     
  -77.526500999999996        20.261884999999999        10.000000000000000     
  -77.580108999999993        20.307264000000000        10.000000000000000     
  -77.634236000000001        20.356245000000001        10.000000000000000     
  -77.604023999999995        20.420403000000000        10.000000000000000     
  -77.567448999999996        20.477056000000001        16.672999999999998     
  -77.592725000000002        20.523161000000002        10.000000000000000     
  -77.641300000000001        20.554929999999999        10.000000000000000     
  -77.696558999999993        20.595124999999999        10.000000000000000     
  -77.746736999999996        20.637501000000000        10.000000000000000     
  -77.710803999999996        20.689786999999999        7.7809999999999997     
  -78.570836000000000        21.384291999999999        10.000000000000000     
  -78.642475000000005        21.428746000000000        10.000000000000000     
  -78.710871999999995        21.470752000000001        10.000000000000000     
  -78.780548999999993        21.510387999999999        10.000000000000000     
  -78.847058000000004        21.555916000000000        10.000000000000000     
  -78.902342000000004        21.608053000000002        7.1890000000000001     
  -78.255240000000001        22.148385999999999        7.8060000000000000     
  -78.150622999999996        22.212616000000001        6.2809999999999997     
  -78.057418999999996        22.267951000000000        23.670000000000002     
  -77.807507999999999        22.141907000000000        40.762000000000000     
  -77.657370000000000        22.180482000000001        765.49900000000002     
  -77.495739000000000        22.232966000000001        361.83199999999999     
  -77.338421999999994        22.285817000000002        212.03000000000000     
  -77.308013000000003        22.387450999999999        109.94900000000000     
  -77.265578000000005        22.479841000000000        129.44700000000000     
  -77.217748999999998        22.558337000000002        91.316000000000003     
  -77.152828999999997        22.616198000000001        28.530000000000001     
  -77.031122999999994        22.576080000000001        23.693999999999999     
  -77.090630000000004        22.584588000000000        46.325000000000003     
  -76.938518000000002        22.591570000000001        9.5060000000000002     
  -76.816030999999995        22.655521000000000        10.000000000000000     
  -76.671571000000000        22.724257000000001        10.000000000000000     
  -76.489317000000000        22.810272999999999        18.677000000000000     
  -76.496093000000002        22.999347000000000        9.9770000000000003     
  -76.521936999999994        23.156504000000002        37.658000000000001     
  -76.642927999999998        23.265139999999999        124.99299999999999     
  -76.789569999999998        23.400098000000000        476.70699999999999     
  -76.872390999999993        23.569050000000001        752.10299999999995     
  -77.059028999999995        23.619081999999999        755.55600000000004     
  -77.150874999999999        23.706075999999999        620.10100000000000     
  -77.156732000000005        23.808403999999999        672.20399999999995     
  -77.226040999999995        23.897715000000002        814.41700000000003     
  -77.218159000000000        23.989737000000002        601.55999999999995     
  -77.330489999999998        24.060821000000001        675.11900000000003     
  -77.554545000000005        24.093087000000001        662.78499999999997     
  -77.446681999999996        24.130846999999999        870.51999999999998     
  -77.314940000000007        24.180993999999998        555.29600000000005     
  -77.308120000000002        24.324660999999999        569.95799999999997     
  -77.371049999999997        24.467696000000000        347.51900000000001     
  -77.506524999999996        24.479042000000000        697.01900000000001     
  -77.464074999999994        24.550391999999999        687.36400000000003     
  -77.491038000000003        24.656704000000001        590.75800000000004     
  -77.634071000000006        24.657109999999999        796.32200000000000     
  -77.734003000000001        24.701514000000000        1021.0830000000000     
  -77.978371999999993        25.024542000000000        874.05700000000002     
  -77.878838000000002        25.052385000000001        1973.7829999999999     
  -77.766256999999996        25.109985999999999        1951.9910000000000     
  -77.733064999999996        25.224411000000000        2139.6880000000001     
  -77.768894000000003        25.337520999999999        1643.3800000000001     
  -77.819350999999997        25.420493000000000        768.50300000000004     
  -77.862166999999999        25.477802000000001        418.88099999999997     
  -77.932286000000005        25.496241000000001        431.42099999999999     
  -78.007867000000005        25.517949999999999        406.62900000000002     
  -77.947787000000005        25.564997000000002        359.82999999999998     
  -77.886527999999998        25.605245000000000        302.27400000000000     
  -77.799447000000001        25.593650000000000        453.97699999999998     
  -77.704803999999996        25.666457000000001        1097.4100000000001     
  -77.648465000000002        25.796610999999999        2271.0210000000002     
  -77.597121999999999        25.927686999999999        1925.1389999999999     
  -77.696039999999996        26.026719000000000        1196.3730000000000     
  -77.692104999999998        26.165241000000002        626.64499999999998     
  -77.845320999999998        26.219987000000000        1017.9270000000000     
  -77.950980999999999        26.287292999999998        1549.2139999999999     
  -78.047320999999997        26.367193000000000        977.26900000000001     
  -78.244984000000002        26.450294000000000        960.68100000000004     
  -78.134106000000003        26.455840999999999        1054.8070000000000     
  -78.326392999999996        26.515272000000000        713.39599999999996     
  -78.412953000000002        26.597814000000000        233.42800000000000     
  -80.091398999999996        26.117657000000001        46.970999999999997     
  -80.030452999999994        26.166789000000001        141.97200000000001     
  -80.013193000000001        26.230629000000000        159.41999999999999     
  -79.973309999999998        26.275193999999999        224.31299999999999     
  -79.910752000000002        26.293752999999999        273.51200000000000     
  -79.924349000000007        26.363734000000001        265.06700000000001     
  -79.868500999999995        26.403117999999999        340.18400000000003     
  -79.817724999999996        26.445443000000001        414.12599999999998     
  -79.775628999999995        26.501228000000001        464.83300000000003     
  -79.730704000000003        26.547025999999999        521.66499999999996     
  -79.665876999999995        26.572548000000001        616.83100000000002     
  -79.569659000000001        26.595537000000000        741.43799999999999     
  -79.265479999999997        26.708175000000001        656.56799999999998     
  -79.323239999999998        26.722239999999999        631.79700000000003     
  -79.205078000000000        26.732430000000001        644.68200000000002     
  -79.562746000000004        26.675970000000000        751.16099999999994     
  -79.499094999999997        26.745117000000000        738.21100000000001     
  -79.375183000000007        26.788060999999999        678.19299999999998     
  -79.055605000000000        26.718316999999999        372.37900000000002     
  -78.907774000000003        26.664442000000001        201.08699999999999     
  -78.961951999999997        26.743507999999999        137.17400000000001     
  -79.129035999999999        26.763656999999998        442.83900000000000     
  -80.101832000000002        26.055095999999999        24.079000000000001     
  -85.568861999999996        30.097953000000000        5.1520000000000001     
  -85.565693999999993        30.112251000000001        4.2709999999999999     
  -85.678580999999994        30.269670000000001       0.75800000000000001     
  -85.745225000000005        30.285613000000001       0.34399999999999997     
  -85.755348999999995        30.292003000000001        1.1180000000000001     
  -85.819345999999996        30.263019000000000        2.2010000000000001     
  -85.835809999999995        30.224982000000001        1.1390000000000000     
  -85.846422000000004        30.246465000000001        1.9130000000000000     
  -85.821288999999993        30.290338999999999        1.6240000000000001     
  -85.800785000000005        30.295741000000000       0.57199999999999995     
  -85.760392999999993        30.308354000000001        1.2060000000000000     
  -85.647346999999996        30.250377000000000        1.4820000000000000     
  -85.657687999999993        30.262307000000000        1.5549999999999999     
  -85.667839000000001        30.274813000000002        1.4670000000000001     
  -86.792068999999998        30.415838999999998        1.2200000000000000     
  -86.799886999999998        30.402573000000000        2.5699999999999998     
  -86.300477999999998        30.413489999999999        3.3530000000000002     
  -86.285458000000006        30.426646999999999        3.2930000000000001     
  -86.276780000000002        30.449449999999999        4.7000000000000002     
  -86.275994999999995        30.475480000000001        2.9449999999999998     
  -86.272064000000000        30.495881000000001       0.91300000000000003     
  -87.114341999999994        30.348851000000000        4.9920000000000000     
  -87.089611000000005        30.354609000000000        4.2949999999999999     
  -87.089691000000002        30.377323000000001        3.6600000000000001     
  -87.055847999999997        30.404430000000001        3.8849999999999998     
  -87.073707999999996        30.429482000000000        3.4159999999999999     
  -87.088399999999993        30.448138000000000        2.4380000000000002     
  -87.095354999999998        30.486858000000002        2.5209999999999999     
  -87.103082000000001        30.521639000000000        2.2010000000000001     
  -87.130127000000002        30.537451000000001        2.0760000000000001     
  -87.172526000000005        30.531566999999999        1.8710000000000000     
  -87.399961000000005        30.401011000000000        2.0169999999999999     
  -87.407875000000004        30.405598000000001        2.2959999999999998     
  -87.418783000000005        30.407671000000001        2.5630000000000002     
  -87.422004000000001        30.419353999999998        2.7269999999999999     
  -88.663589000000002        15.887014000000001        5.1410000000000000     
  -88.543969000000004        15.872465999999999        44.359000000000002     
  -88.755009000000001        15.976573000000000        5.6870000000000003     
  -88.845106000000001        16.060210999999999        2.3780000000000001     
  -82.516304000000005        13.977193000000000        16.587000000000000     
  -82.709784999999997        13.940151999999999        18.798999999999999     
  -82.918379000000002        13.956175999999999        20.000000000000000     
  -83.084619000000004        13.955291000000001        16.625000000000000     
  -83.210972999999996        14.033042999999999        11.890000000000001     
  -83.170499000000007        14.145607999999999        14.321000000000000     
  -83.221209000000002        14.230033000000001        8.3770000000000007     
  -81.287988999999996        12.765440000000000        1632.4120000000000     
  -81.653147000000004        12.963123000000000        1984.7159999999999     
  -82.009039000000001        12.948701000000000        787.65700000000004     
  -82.217658999999998        13.170311999999999        286.26999999999998     
  -82.391384000000002        13.300464000000000        32.125000000000000     
  -82.450081999999995        13.468279000000001        26.161999999999999     
  -82.451967999999994        13.617569000000000        17.359999999999999     
  -82.568901999999994        13.698126999999999        11.877000000000001     
  -82.549059000000000        13.840123999999999        15.198000000000000     
  -80.797905000000000        12.677733000000000        1976.0070000000001     
  -80.445554000000001        12.570594000000000        2969.4600000000000     
  -80.077799999999996        12.599586000000000        3030.9510000000000     
  -79.628724000000005        12.594867000000001        3173.9259999999999     
  -79.173145000000005        12.580062000000000        3420.6280000000002     
  -78.717928000000001        12.560071000000001        3121.1810000000000     
  -78.466183999999998        12.868903000000000        3737.3640000000000     
  -78.213746999999998        13.180358000000000        3687.9940000000001     
  -77.962647000000004        13.493957000000000        3915.2700000000000     
  -77.714050000000000        13.811026000000000        4003.3080000000000     
  -77.243200000000002        13.794660000000000        4024.6930000000002     
  -76.765974999999997        13.774191999999999        4023.2640000000001     
  -76.503822000000000        14.099947999999999        4025.2230000000000     
  -76.014127000000002        14.075923000000000        4025.3860000000000     
  -75.745108999999999        14.407553000000000        4042.4800000000000     
  -75.478268999999997        14.742718999999999        4030.7420000000002     
  -75.215800999999999        15.080721000000000        4033.0279999999998     
  -74.959401000000000        15.422283999999999        4025.8130000000001     
  -74.708218000000002        15.771335000000001        3767.1329999999998     
  -74.973978000000002        16.108460000000001        2996.9200000000001     
  -75.233922000000007        16.470631999999998        2122.0459999999998     
  -75.237153000000006        16.875589000000002        1664.7329999999999     
  -75.276914000000005        17.208527000000000        733.56899999999996     
  -75.337582999999995        17.484196000000001        1320.6990000000001     
  -75.628091999999995        17.594407000000000        1012.1230000000000     
  -76.088944999999995        17.684367000000002        921.36000000000001     
  -75.862582000000003        17.722458000000000        787.31299999999999     
  -76.253359000000003        17.696860999999998        991.75300000000004     
  -76.924638000000002        17.742878999999999        233.36099999999999     
  -76.712401999999997        17.748170999999999        991.97500000000002     
  -76.822530999999998        17.781783999999998        883.55600000000004     
  -76.486142000000001        17.767797000000002        817.63400000000001     
  -76.609725999999995        17.792037000000001        1004.1720000000000     
  -76.349057999999999        17.775597999999999        599.93700000000001     
  -77.145587000000006        17.693369000000001        128.30500000000001     
  -77.369636000000000        17.697521999999999        143.93799999999999     
  -77.264157999999995        17.754238000000001        68.507000000000005     
  -77.050472999999997        17.779112999999999        41.600999999999999     
  -77.328383000000002        17.811050000000002        20.864000000000001     
  -77.434606000000002        17.881238000000000        1.3330000000000000     
  -76.720710999999994        18.261479000000001        330.76299999999998     
  -76.642302000000001        18.306787000000000        816.91899999999998     
  -76.546364999999994        18.297200000000000        1252.8779999999999     
  -76.432320000000004        18.275503000000000        1212.8219999999999     
  -76.319074999999998        18.240413000000000        1788.2130000000000     
  -76.198908000000003        18.312408000000001        1431.2220000000000     
  -76.085598000000005        18.236297000000000        1184.9420000000000     
  -75.890136999999996        18.247060000000001        1244.8489999999999     
  -75.762901999999997        18.403027000000002        1061.8480000000000     
  -75.624956999999995        18.537513000000001        1024.1450000000000     
  -75.584879000000001        18.736108999999999        1857.7590000000000     
  -75.428708999999998        18.950292999999999        2917.8339999999998     
  -75.569486999999995        19.136844000000000        3271.9189999999999     
  -75.447963000000001        19.344078000000000        4106.7479999999996     
  -75.635777000000004        19.441348999999999        4849.9650000000001     
  -75.688168000000005        19.581388000000000        4918.5230000000001     
  -75.761337999999995        19.689155000000000        3848.3139999999999     
  -75.850459000000001        19.756280000000000        3099.7939999999999     
  -75.898331999999996        19.841721000000000        2615.5470000000000     
  -76.104750999999993        19.851106000000001        3242.2130000000002     
  -75.993429000000006        19.888107999999999        1795.7380000000001     
  -76.202914000000007        19.849419000000001        3434.0920000000001     
  -76.368849999999995        19.892675000000001        2471.6610000000001     
  -76.265654999999995        19.902835000000000        2307.5439999999999     
  -76.532820999999998        19.940802999999999        1190.9910000000000     
  -76.635266000000001        19.949217999999998        556.29300000000001     
  -76.426961000000006        19.963242000000001        678.11099999999999     
  -76.744540999999998        19.939401000000000        693.68399999999997     
  -77.359617999999998        20.214684999999999        10.000000000000000     
  -77.407293999999993        20.243203999999999        10.000000000000000     
  -77.457189999999997        20.280549000000001        10.000000000000000     
  -77.506874999999994        20.322825000000002        10.000000000000000     
  -77.556023999999994        20.369057999999999        11.965999999999999     
  -77.527455000000003        20.427122000000001        17.661999999999999     
  -77.496740000000003        20.480943000000000        39.267000000000003     
  -77.532872999999995        20.527785000000002        33.194000000000003     
  -77.571124999999995        20.573117000000000        16.009000000000000     
  -77.618367000000006        20.624019000000001        10.000000000000000     
  -77.680879000000004        20.645700999999999        10.000000000000000     
  -77.631928000000002        20.682075000000001        8.8610000000000007     
  -78.591555000000000        21.457256999999998        10.000000000000000     
  -78.629321000000004        21.515181999999999        10.000000000000000     
  -78.707358999999997        21.538257000000002        10.000000000000000     
  -78.764690999999999        21.575441999999999        10.000000000000000     
  -78.838463000000004        21.622868000000000        8.6600000000000001     
  -78.135801000000001        22.108530999999999        5.5919999999999996     
  -78.035024000000007        22.179043000000000        36.933000000000000     
  -77.681973999999997        22.065663000000001        337.26499999999999     
  -77.559129999999996        22.100069999999999        353.61900000000003     
  -77.424975000000003        22.111737000000002        963.81399999999996     
  -77.350543000000002        22.189933000000000        503.11200000000002     
  -77.202584000000002        22.217486000000001        416.11200000000002     
  -77.236397999999994        22.322889000000000        155.41300000000001     
  -77.183841000000001        22.404824000000001        53.508000000000003     
  -77.164484000000002        22.495462000000000        13.631000000000000     
  -77.140692000000001        22.555336000000000        24.588000000000001     
  -76.997968999999998        22.528977000000001        10.000000000000000     
  -77.077780000000004        22.522188000000000        39.058999999999997     
  -76.924136000000004        22.492467999999999        10.819000000000001     
  -76.812607000000000        22.537793000000001        10.000000000000000     
  -76.694506000000004        22.596319000000001        10.000000000000000     
  -76.500658999999999        22.603791000000001        6.0010000000000003     
  -76.257356000000001        22.732914000000001        111.76300000000001     
  -76.323267000000001        22.907976999999999        124.37500000000000     
  -76.335054000000000        23.025786000000000        46.847999999999999     
  -76.395392000000001        23.109048999999999        10.000000000000000     
  -76.412217999999996        23.192741000000002        10.000000000000000     
  -76.464270999999997        23.280362000000000        8.5429999999999993     
  -76.545056000000002        23.420083000000002        121.36600000000000     
  -76.680853999999997        23.548734000000000        457.51600000000002     
  -76.754219000000006        23.684896999999999        586.94700000000000     
  -76.928693999999993        23.711085000000001        559.93799999999999     
  -77.059719000000001        23.734898999999999        607.67999999999995     
  -77.003274000000005        23.829885000000001        621.47299999999996     
  -77.107791000000006        23.920469000000001        811.45399999999995     
  -77.099382000000006        24.021388000000002        312.22199999999998     
  -77.192839000000006        24.099952999999999        458.93599999999998     
  -77.159110999999996        24.225724000000000        438.75299999999999     
  -77.132440000000003        24.354426000000000        436.90100000000001     
  -77.232704999999996        24.429081000000000        820.18700000000001     
  -77.235844999999998        24.529454000000001        657.11699999999996     
  -77.355889000000005        24.590509999999998        308.87700000000001     
  -77.343069000000000        24.700631999999999        380.37299999999999     
  -77.600161000000000        24.761894999999999        1519.5490000000000     
  -77.444129000000004        24.778381000000000        496.53699999999998     
  -77.717590000000001        24.791882000000001        1217.2040000000000     
  -77.806550000000001        24.761101000000000        810.95299999999997     
  -77.936372000000006        24.971228000000000        1793.2200000000000     
  -77.835789000000005        24.961627000000000        1814.8199999999999     
  -77.773661000000004        25.025175000000001        1878.2149999999999     
  -77.665949999999995        25.047108000000001        873.11300000000006     
  -77.662982999999997        25.139651000000001        1716.5029999999999     
  -77.582992000000004        25.208103999999999        2533.2280000000001     
  -77.620639999999995        25.334085999999999        2894.5980000000000     
  -77.710839000000007        25.426590999999998        1143.5690000000000     
  -77.778710000000004        25.504666000000000        465.97100000000000     
  -77.867819999999995        25.540433000000000        374.94900000000001     
  -77.711955000000003        25.568200999999998        721.38300000000004     
  -77.597420999999997        25.570736000000000        501.73300000000000     
  -77.544712000000004        25.694583999999999        1536.6369999999999     
  -77.470671999999993        25.825039000000000        2322.3989999999999     
  -77.443111000000002        25.952956000000000        1189.2680000000000     
  -77.535722000000007        26.063417999999999        708.05600000000004     
  -77.530135999999999        26.198336999999999        238.55699999999999     
  -77.623988999999995        26.282404000000000        106.62200000000000     
  -77.747001999999995        26.289947000000002        1158.2550000000001     
  -77.849862999999999        26.316317999999999        543.32299999999998     
  -77.918422000000007        26.387488000000001        1173.8840000000000     
  -77.999882999999997        26.480416000000002        511.78100000000001     
  -78.212851999999998        26.537555000000001        701.45000000000005     
  -78.098583000000005        26.554993000000000        681.13400000000001     
  -78.295332000000002        26.621134000000001        345.91600000000000     
  -80.087708000000006        26.205904000000000        101.24299999999999     
  -80.080646999999999        26.272608000000002        103.13300000000000     
  -80.024863999999994        26.292119000000000        136.50299999999999     
  -79.983594999999994        26.328355999999999        181.04900000000001     
  -79.994733999999994        26.391528000000001        157.88000000000000     
  -79.936179999999993        26.426338999999999        242.39900000000000     
  -79.884024999999994        26.462019000000002        309.50000000000000     
  -79.841391999999999        26.493421999999999        363.52699999999999     
  -79.835639999999998        26.540369999999999        362.64100000000002     
  -79.783435999999995        26.558782999999998        433.57600000000002     
  -79.748542000000000        26.610043000000001        495.63999999999999     
  -79.659413000000001        26.662540000000000        608.17999999999995     
  -79.276711000000006        26.766423000000000        658.05999999999995     
  -79.204578999999995        26.805223000000002        603.21000000000004     
  -79.604398000000003        26.732468000000001        691.26999999999998     
  -79.596810000000005        26.815376000000001        688.22900000000004     
  -79.479253000000000        26.868801000000001        730.39800000000002     
  -79.286739999999995        26.842419000000000        651.78399999999999     
  -79.367163000000005        26.880479000000001        676.85900000000004     
  -79.046980000000005        26.795779000000000        353.60899999999998     
  -78.850990999999993        26.624465000000001        111.92700000000001     
  -78.824371999999997        26.675031000000001        12.617000000000001     
  -78.878500000000003        26.726032000000000        125.17100000000001     
  -78.887287999999998        26.794111999999998        133.85499999999999     
  -78.966528999999994        26.832018999999999        152.25399999999999     
  -79.124975000000006        26.841290000000001        361.76999999999998     
  -85.556663000000000        30.093602000000001        4.8449999999999998     
  -85.545339999999996        30.103086999999999        4.8550000000000004     
  -85.544653999999994        30.117391000000001        3.1690000000000000     
  -85.554207000000005        30.130445000000002        1.8450000000000000     
  -85.747208999999998        30.303844000000002       0.62700000000000000     
  -85.842454000000004        30.272112000000000        2.0070000000000001     
  -85.629600999999994        30.249891000000002        1.7100000000000000     
  -85.639092000000005        30.265694000000000        1.3730000000000000     
  -85.655188999999993        30.277293000000000       0.71599999999999997     
  -86.815089999999998        30.414517000000000        3.0219999999999998     
  -86.819599999999994        30.397082000000001        2.8719999999999999     
  -86.268745999999993        30.397593000000001        2.2309999999999999     
  -86.260568000000006        30.428018999999999        2.7519999999999998     
  -86.254677000000001        30.443611000000001        4.7599999999999998     
  -86.258804999999995        30.463830999999999        3.4430000000000001     
  -86.249144999999999        30.489052000000001        2.1949999999999998     
  -87.059742999999997        30.361605000000001        4.0579999999999998     
  -87.052160000000001        30.381249000000000        3.4700000000000002     
  -87.012135000000001        30.408711000000000        3.3380000000000001     
  -87.028914999999998        30.436347999999999        2.9409999999999998     
  -87.065990999999997        30.462358999999999        2.2360000000000002     
  -87.161123000000003        30.582352000000000        1.6980000000000000     
  -87.189391000000001        30.566939999999999        1.2330000000000001     
  -87.391234999999995        30.406054999999999        1.6060000000000001     
  -87.399552999999997        30.410650000000000        2.3290000000000002     
  -87.409634999999994        30.414984000000000        2.4590000000000001     
  -87.410522999999998        30.425774000000001        1.7330000000000001     
  -88.725376999999995        15.818825000000000        10.000000000000000     
  -88.562110000000004        15.783064000000000        10.858000000000001     
